ply
format ascii 1.0
element vertex 60
property float x
property float y
property float z
property float nx
property float ny
property float nz
end_header
    1.0000         0         0    1.0000         0         0
   -0.9999    0.0000    0.0167   -0.9999    0.0000    0.0167
    0.0000    0.9994    0.0333    0.0000    0.9994    0.0333
   -0.0000   -0.9987    0.0500   -0.0000   -0.9987    0.0500
    0.7055    0.7055    0.0667    0.7055    0.7055    0.0667
   -0.7046   -0.7046    0.0833   -0.7046   -0.7046    0.0833
   -0.7036    0.7036    0.1000   -0.7036    0.7036    0.1000
    0.7023   -0.7023    0.1167    0.7023   -0.7023    0.1167
    0.9156    0.3793    0.1333    0.9156    0.3793    0.1333
   -0.9134   -0.3784   -0.1500   -0.9134   -0.3784   -0.1500
   -0.3773    0.9110   -0.1667   -0.3773    0.9110   -0.1667
    0.3762   -0.9082    0.1833    0.3762   -0.9082    0.1833
    0.3750    0.9052    0.2000    0.3750    0.9052    0.2000
   -0.3736   -0.9019    0.2167   -0.3736   -0.9019    0.2167
   -0.8984    0.3721   -0.2333   -0.8984    0.3721   -0.2333
    0.8945   -0.3705    0.2500    0.8945   -0.3705    0.2500
    0.9453    0.1880    0.2667    0.9453    0.1880    0.2667
   -0.9406   -0.1871   -0.2833   -0.9406   -0.1871   -0.2833
   -0.1861    0.9356    0.3000   -0.1861    0.9356    0.3000
    0.1851   -0.9303    0.3167    0.1851   -0.9303    0.3167
    0.5238    0.7839    0.3333    0.5238    0.7839    0.3333
   -0.5204   -0.7789    0.3500   -0.5204   -0.7789    0.3500
   -0.7736    0.5169    0.3667   -0.7736    0.5169    0.3667
    0.7680   -0.5131   -0.3833    0.7680   -0.5131   -0.3833
    0.7621    0.5092   -0.4000    0.7621    0.5092   -0.4000
   -0.7559   -0.5050   -0.4167   -0.7559   -0.5050   -0.4167
   -0.5007    0.7493    0.4333   -0.5007    0.7493    0.4333
    0.4961   -0.7425    0.4500    0.4961   -0.7425    0.4500
    0.1725    0.8674    0.4667    0.1725    0.8674    0.4667
   -0.1708   -0.8586   -0.4833   -0.1708   -0.8586   -0.4833
   -0.8494    0.1690    0.5000   -0.8494    0.1690    0.5000
    0.8397   -0.1670    0.5167    0.8397   -0.1670    0.5167
    0.8418    0.0829    0.5333    0.8418    0.0829    0.5333
   -0.8311   -0.0819   -0.5500   -0.8311   -0.0819   -0.5500
   -0.0808    0.8200   -0.5667   -0.0808    0.8200   -0.5667
    0.0796   -0.8083   -0.5833    0.0796   -0.8083   -0.5833
    0.5075    0.6184    0.6000    0.5075    0.6184    0.6000
   -0.4994   -0.6085   -0.6167   -0.4994   -0.6085   -0.6167
   -0.5982    0.4909    0.6333   -0.5982    0.4909    0.6333
    0.5874   -0.4821   -0.6500    0.5874   -0.4821   -0.6500
    0.6573    0.3514    0.6667    0.6573    0.3514    0.6667
   -0.6439   -0.3442   -0.6833   -0.6439   -0.3442   -0.6833
   -0.3366    0.6298    0.7000   -0.3366    0.6298    0.7000
    0.3288   -0.6151    0.7167    0.3288   -0.6151    0.7167
    0.1974    0.6506   -0.7333    0.1974    0.6506   -0.7333
   -0.1920   -0.6330   -0.7500   -0.1920   -0.6330   -0.7500
   -0.6144    0.1864    0.7667   -0.6144    0.1864    0.7667
    0.5948   -0.1804   -0.7833    0.5948   -0.1804   -0.7833
    0.5742    0.1742   -0.8000    0.5742    0.1742   -0.8000
   -0.5523   -0.1675    0.8167   -0.5523   -0.1675    0.8167
   -0.1605    0.5290    0.8333   -0.1605    0.5290    0.8333
    0.1529   -0.5041    0.8500    0.1529   -0.5041    0.8500
    0.2352    0.4400    0.8667    0.2352    0.4400    0.8667
   -0.2210   -0.4134   -0.8833   -0.2210   -0.4134   -0.8833
   -0.3844    0.2055   -0.9000   -0.3844    0.2055   -0.9000
    0.3525   -0.1884   -0.9167    0.3525   -0.1884   -0.9167
    0.2775    0.2278   -0.9333    0.2775    0.2278   -0.9333
   -0.2414   -0.1981   -0.9500   -0.2414   -0.1981   -0.9500
   -0.1624    0.1979    0.9667   -0.1624    0.1979    0.9667
    0.1153   -0.1405   -0.9833    0.1153   -0.1405   -0.9833